# .PCD v0.7 - Point Cloud Data file format
VERSION 0.7
FIELDS x y z
SIZE 4 4 4
TYPE F F F
COUNT 1 1 1
WIDTH 1802
HEIGHT 1
VIEWPOINT 0 0 0 1 0 0 0
POINTS 1802
DATA ascii
0.25099999 -1.249 0.95099998
0.25099999 -1.249 1.001
0.25099999 -1.249 1.051
0.25099999 -1.249 1.101
0.25099999 -1.249 1.151
0.25099999 -1.249 1.201
0.25099999 -1.249 1.251
0.25099999 -1.249 1.301
0.25099999 -1.249 1.351
0.25099999 -1.249 1.401
0.25099999 -1.249 1.451
0.25099999 -1.249 1.501
0.25099999 -1.249 1.551
0.25099999 -1.249 1.601
0.25099999 -1.249 1.651
0.25099999 -1.249 1.701
0.25099999 -1.249 1.751
0.25099999 -1.149 0.001
0.25099999 -1.149 0.050999999
0.25099999 -1.149 0.101
0.25099999 -1.149 0.15099999
0.25099999 -1.149 0.20100001
0.25099999 -1.149 0.25099999
0.25099999 -1.149 0.301
0.25099999 -1.149 0.35100001
0.25099999 -1.149 0.40099999
0.25099999 -1.149 0.45100001
0.25099999 -1.149 0.50099999
0.25099999 -1.149 0.551
0.25099999 -1.149 0.60100001
0.25099999 -1.149 0.65100002
0.25099999 -1.149 0.70099998
0.25099999 -1.149 0.75099999
0.25099999 -1.149 0.801
0.25099999 -1.149 0.85100001
0.25099999 -1.149 0.90100002
0.25099999 -1.149 0.95099998
0.25099999 -1.149 1.001
0.25099999 -1.149 1.051
0.25099999 -1.149 1.101
0.25099999 -1.149 1.151
0.25099999 -1.149 1.201
0.25099999 -1.149 1.251
0.25099999 -1.149 1.301
0.25099999 -1.149 1.351
0.25099999 -1.149 1.401
0.25099999 -1.149 1.451
0.25099999 -1.149 1.501
0.25099999 -1.149 1.551
0.25099999 -1.149 1.601
0.25099999 -1.149 1.651
0.25099999 -1.149 1.701
0.25099999 -1.149 1.751
0.25099999 -1.149 1.801
0.25099999 -1.149 1.851
0.25099999 -1.149 1.901
0.25099999 -1.149 1.951
0.25099999 -1.149 2.0009999
0.25099999 -1.149 2.0510001
0.25099999 -1.149 2.1010001
0.25099999 -1.149 2.151
0.25099999 -1.149 2.201
0.25099999 -1.149 2.2509999
0.25099999 -1.149 2.3010001
0.25099999 -1.149 2.3510001
0.25099999 -1.149 2.401
0.25099999 -1.149 2.451
0.25099999 -1.149 2.5009999
0.25099999 -1.149 2.5510001
0.25099999 -1.149 2.6010001
0.25099999 -1.149 2.651
0.25099999 -1.149 2.701
0.25099999 -1.149 2.7509999
0.25099999 -1.149 2.8010001
0.25099999 -1.149 2.8510001
0.25099999 -1.149 2.901
0.25099999 -1.149 2.951
0.25099999 -1.049 0.001
0.25099999 -1.049 0.050999999
0.25099999 -1.049 0.101
0.25099999 -1.049 0.15099999
0.25099999 -1.049 0.20100001
0.25099999 -1.049 0.25099999
0.25099999 -1.049 0.301
0.25099999 -1.049 0.35100001
0.25099999 -1.049 0.40099999
0.25099999 -1.049 0.45100001
0.25099999 -1.049 0.50099999
0.25099999 -1.049 0.551
0.25099999 -1.049 0.60100001
0.25099999 -1.049 0.65100002
0.25099999 -1.049 0.70099998
0.25099999 -1.049 0.75099999
0.25099999 -1.049 0.801
0.25099999 -1.049 0.85100001
0.25099999 -1.049 0.90100002
0.25099999 -1.049 0.95099998
0.25099999 -1.049 1.001
0.25099999 -1.049 1.051
0.25099999 -1.049 1.101
0.25099999 -1.049 1.151
0.25099999 -1.049 1.201
0.25099999 -1.049 1.251
0.25099999 -1.049 1.301
0.25099999 -1.049 1.351
0.25099999 -1.049 1.401
0.25099999 -1.049 1.451
0.25099999 -1.049 1.501
0.25099999 -1.049 1.551
0.25099999 -1.049 1.601
0.25099999 -1.049 1.651
0.25099999 -1.049 1.701
0.25099999 -1.049 1.751
0.25099999 -1.049 1.801
0.25099999 -1.049 1.851
0.25099999 -1.049 1.901
0.25099999 -1.049 1.951
0.25099999 -1.049 2.0009999
0.25099999 -1.049 2.0510001
0.25099999 -1.049 2.1010001
0.25099999 -1.049 2.151
0.25099999 -1.049 2.201
0.25099999 -1.049 2.2509999
0.25099999 -1.049 2.3010001
0.25099999 -1.049 2.3510001
0.25099999 -1.049 2.401
0.25099999 -1.049 2.451
0.25099999 -1.049 2.5009999
0.25099999 -1.049 2.5510001
0.25099999 -1.049 2.6010001
0.25099999 -1.049 2.651
0.25099999 -1.049 2.701
0.25099999 -1.049 2.7509999
0.25099999 -1.049 2.8010001
0.25099999 -1.049 2.8510001
0.25099999 -1.049 2.901
0.25099999 -1.049 2.951
-0.74900001 3.651 0.001
-0.74900001 3.651 0.050999999
-0.74900001 3.651 0.101
-0.74900001 3.651 0.15099999
-0.74900001 3.651 0.20100001
-0.74900001 3.651 0.25099999
-0.74900001 3.651 0.301
-0.74900001 3.651 0.35100001
-0.74900001 3.651 0.40099999
-0.74900001 3.651 0.45100001
-0.74900001 3.651 0.50099999
-0.74900001 3.651 0.551
-0.74900001 3.651 0.60100001
-0.74900001 3.651 0.65100002
-0.74900001 3.651 0.70099998
-0.74900001 3.651 0.75099999
-0.74900001 3.651 0.801
-0.74900001 3.651 0.85100001
-0.74900001 3.651 0.90100002
-0.74900001 3.651 0.95099998
-0.74900001 3.651 1.001
-0.74900001 3.651 1.051
-0.74900001 3.651 1.101
-0.74900001 3.651 1.151
-0.74900001 3.7509999 0.001
-0.74900001 3.7509999 0.050999999
-0.74900001 3.7509999 0.101
-0.74900001 3.7509999 0.15099999
-0.74900001 3.7509999 0.20100001
-0.74900001 3.7509999 0.25099999
-0.74900001 3.7509999 0.301
-0.74900001 3.7509999 0.35100001
-0.74900001 3.7509999 0.40099999
-0.74900001 3.7509999 0.45100001
-0.74900001 3.7509999 0.50099999
-0.74900001 3.7509999 0.551
-0.74900001 3.7509999 0.60100001
-0.74900001 3.7509999 0.65100002
-0.74900001 3.7509999 0.70099998
-0.74900001 3.7509999 0.75099999
-0.74900001 3.7509999 0.801
-0.74900001 3.7509999 0.85100001
-0.74900001 3.7509999 0.90100002
-0.74900001 3.7509999 0.95099998
-0.74900001 3.7509999 1.001
-0.74900001 3.7509999 1.051
-0.74900001 3.7509999 1.101
-0.74900001 3.7509999 1.151
-0.74900001 3.7509999 1.201
-0.74900001 3.7509999 1.251
-0.74900001 3.7509999 1.301
-0.74900001 3.7509999 1.351
-0.74900001 3.7509999 1.401
-0.74900001 3.7509999 1.451
-0.74900001 3.7509999 1.501
-0.74900001 3.7509999 1.551
-0.74900001 3.7509999 1.601
-0.74900001 3.7509999 1.651
-0.74900001 3.7509999 1.701
-0.74900001 3.7509999 1.751
-0.74900001 3.8510001 0.001
-0.74900001 3.8510001 0.050999999
-0.74900001 3.8510001 0.101
-0.74900001 3.8510001 0.15099999
-0.74900001 3.8510001 0.20100001
-0.74900001 3.8510001 0.25099999
-0.74900001 3.8510001 0.301
-0.74900001 3.8510001 0.35100001
-0.74900001 3.8510001 0.40099999
-0.74900001 3.8510001 0.45100001
-0.74900001 3.8510001 0.50099999
-0.74900001 3.8510001 0.551
-0.74900001 3.8510001 0.60100001
-0.74900001 3.8510001 0.65100002
-0.74900001 3.8510001 0.70099998
-0.74900001 3.8510001 0.75099999
-0.74900001 3.8510001 0.801
-0.74900001 3.8510001 0.85100001
-0.74900001 3.8510001 0.90100002
-0.74900001 3.8510001 0.95099998
-0.74900001 3.8510001 1.001
-0.74900001 3.8510001 1.051
-0.74900001 3.8510001 1.101
-0.74900001 3.8510001 1.151
-0.74900001 3.8510001 1.201
-0.74900001 3.8510001 1.251
-0.74900001 3.8510001 1.301
-0.74900001 3.8510001 1.351
-0.74900001 3.8510001 1.401
-0.74900001 3.8510001 1.451
-0.64899999 3.651 0.001
-0.64899999 3.651 0.050999999
-0.64899999 3.651 0.101
-0.64899999 3.651 0.15099999
-0.64899999 3.651 0.20100001
-0.64899999 3.651 0.25099999
-0.64899999 3.651 0.301
-0.64899999 3.651 0.35100001
-0.64899999 3.651 0.40099999
-0.64899999 3.651 0.45100001
-0.64899999 3.651 0.50099999
-0.64899999 3.651 0.551
-0.64899999 3.651 0.60100001
-0.64899999 3.651 0.65100002
-0.64899999 3.651 0.70099998
-0.64899999 3.651 0.75099999
-0.64899999 3.651 0.801
-0.64899999 3.651 0.85100001
-0.64899999 3.651 0.90100002
-0.64899999 3.651 0.95099998
-0.64899999 3.651 1.001
-0.64899999 3.651 1.051
-0.64899999 3.651 1.101
-0.64899999 3.651 1.151
-0.64899999 3.651 1.201
-0.64899999 3.651 1.251
-0.64899999 3.651 1.301
-0.64899999 3.651 1.351
-0.64899999 3.651 1.401
-0.64899999 3.651 1.451
-0.64899999 3.651 1.501
-0.64899999 3.651 1.551
-0.64899999 3.651 1.601
-0.64899999 3.651 1.651
-0.64899999 3.651 1.701
-0.64899999 3.651 1.751
-0.64899999 3.651 1.801
-0.64899999 3.651 1.851
-0.64899999 3.651 1.901
-0.64899999 3.651 1.951
-0.64899999 3.651 2.0009999
-0.64899999 3.651 2.0510001
-0.64899999 3.651 2.1010001
-0.64899999 3.651 2.151
-0.64899999 3.651 2.201
-0.64899999 3.651 2.2509999
-0.64899999 3.651 2.3010001
-0.64899999 3.651 2.3510001
-0.64899999 3.651 2.401
-0.64899999 3.651 2.451
-0.64899999 3.7509999 0.001
-0.64899999 3.7509999 0.050999999
-0.64899999 3.7509999 0.101
-0.64899999 3.7509999 0.15099999
-0.64899999 3.7509999 0.20100001
-0.64899999 3.7509999 0.25099999
-0.64899999 3.7509999 0.301
-0.64899999 3.7509999 0.35100001
-0.64899999 3.7509999 0.40099999
-0.64899999 3.7509999 0.45100001
-0.64899999 3.7509999 0.50099999
-0.64899999 3.7509999 0.551
-0.64899999 3.7509999 0.60100001
-0.64899999 3.7509999 0.65100002
-0.64899999 3.7509999 0.70099998
-0.64899999 3.7509999 0.75099999
-0.64899999 3.7509999 0.801
-0.64899999 3.7509999 0.85100001
-0.64899999 3.7509999 0.90100002
-0.64899999 3.7509999 0.95099998
-0.64899999 3.7509999 1.001
-0.64899999 3.7509999 1.051
-0.64899999 3.7509999 1.101
-0.64899999 3.7509999 1.151
-0.64899999 3.7509999 1.201
-0.64899999 3.7509999 1.251
-0.64899999 3.7509999 1.301
-0.64899999 3.7509999 1.351
-0.64899999 3.7509999 1.401
-0.64899999 3.7509999 1.451
-0.64899999 3.7509999 1.501
-0.64899999 3.7509999 1.551
-0.64899999 3.7509999 1.601
-0.64899999 3.7509999 1.651
-0.64899999 3.7509999 1.701
-0.64899999 3.7509999 1.751
-0.64899999 3.7509999 1.801
-0.64899999 3.7509999 1.851
-0.64899999 3.7509999 1.901
-0.64899999 3.7509999 1.951
-0.64899999 3.7509999 2.0009999
-0.64899999 3.7509999 2.0510001
-0.64899999 3.7509999 2.1010001
-0.64899999 3.7509999 2.151
-0.64899999 3.7509999 2.201
-0.64899999 3.7509999 2.2509999
-0.64899999 3.7509999 2.3010001
-0.64899999 3.7509999 2.3510001
-0.64899999 3.8510001 0.001
-0.64899999 3.8510001 0.050999999
-0.64899999 3.8510001 0.101
-0.64899999 3.8510001 0.15099999
-0.64899999 3.8510001 0.20100001
-0.64899999 3.8510001 0.25099999
-0.64899999 3.8510001 0.301
-0.64899999 3.8510001 0.35100001
-0.64899999 3.8510001 0.40099999
-0.64899999 3.8510001 0.45100001
-0.64899999 3.8510001 0.50099999
-0.64899999 3.8510001 0.551
-0.64899999 3.8510001 0.60100001
-0.64899999 3.8510001 0.65100002
-0.64899999 3.8510001 0.70099998
-0.64899999 3.8510001 0.75099999
-0.64899999 3.8510001 0.801
-0.64899999 3.8510001 0.85100001
-0.64899999 3.8510001 0.90100002
-0.64899999 3.8510001 0.95099998
-0.64899999 3.8510001 1.001
-0.64899999 3.8510001 1.051
-0.64899999 3.8510001 1.101
-0.64899999 3.8510001 1.151
-0.64899999 3.8510001 1.201
-0.64899999 3.8510001 1.251
-0.64899999 3.8510001 1.301
-0.64899999 3.8510001 1.351
-0.64899999 3.8510001 1.401
-0.64899999 3.8510001 1.451
-0.64899999 3.8510001 1.501
-0.64899999 3.8510001 1.551
-0.54900002 3.651 0.001
-0.54900002 3.651 0.050999999
-0.54900002 3.651 0.101
-0.54900002 3.651 0.15099999
-0.54900002 3.651 0.20100001
-0.54900002 3.651 0.25099999
-0.54900002 3.651 0.301
-0.54900002 3.651 0.35100001
-0.54900002 3.651 0.40099999
-0.54900002 3.651 0.45100001
-0.54900002 3.651 0.50099999
-0.54900002 3.651 0.551
-0.54900002 3.651 0.60100001
-0.54900002 3.651 0.65100002
-0.54900002 3.651 0.70099998
-0.54900002 3.651 0.75099999
-0.54900002 3.651 0.801
-0.54900002 3.651 0.85100001
-0.54900002 3.651 0.90100002
-0.54900002 3.651 0.95099998
-0.54900002 3.651 1.001
-0.54900002 3.651 1.051
-0.54900002 3.651 1.101
-0.54900002 3.651 1.151
-0.54900002 3.651 1.201
-0.54900002 3.651 1.251
-0.54900002 3.651 1.301
-0.54900002 3.651 1.351
-0.54900002 3.651 1.401
-0.54900002 3.651 1.451
-0.54900002 3.651 1.501
-0.54900002 3.651 1.551
-0.54900002 3.651 1.601
-0.54900002 3.651 1.651
-0.54900002 3.7509999 0.001
-0.54900002 3.7509999 0.050999999
-0.54900002 3.7509999 0.101
-0.54900002 3.7509999 0.15099999
-0.54900002 3.7509999 0.20100001
-0.54900002 3.7509999 0.25099999
-0.54900002 3.7509999 0.301
-0.54900002 3.7509999 0.35100001
-0.54900002 3.7509999 0.40099999
-0.54900002 3.7509999 0.45100001
-0.54900002 3.7509999 0.50099999
-0.54900002 3.7509999 0.551
-0.54900002 3.7509999 0.60100001
-0.54900002 3.7509999 0.65100002
-0.54900002 3.7509999 0.70099998
-0.54900002 3.7509999 0.75099999
-0.54900002 3.7509999 0.801
-0.54900002 3.7509999 0.85100001
-0.54900002 3.7509999 0.90100002
-0.54900002 3.7509999 0.95099998
-0.54900002 3.7509999 1.001
-0.54900002 3.7509999 1.051
-0.54900002 3.7509999 1.101
-0.54900002 3.7509999 1.151
-0.54900002 3.7509999 1.201
-0.54900002 3.7509999 1.251
-0.54900002 3.7509999 1.301
-0.54900002 3.7509999 1.351
-0.54900002 3.7509999 1.401
-0.54900002 3.7509999 1.451
-0.54900002 3.8510001 0.001
-0.54900002 3.8510001 0.050999999
-0.54900002 3.8510001 0.101
-0.54900002 3.8510001 0.15099999
-0.54900002 3.8510001 0.20100001
-0.54900002 3.8510001 0.25099999
-0.54900002 3.8510001 0.301
-0.54900002 3.8510001 0.35100001
-0.54900002 3.8510001 0.40099999
-0.54900002 3.8510001 0.45100001
-0.54900002 3.8510001 0.50099999
-0.54900002 3.8510001 0.551
-0.54900002 3.8510001 0.60100001
-0.54900002 3.8510001 0.65100002
-0.54900002 3.8510001 0.70099998
-0.54900002 3.8510001 0.75099999
-0.54900002 3.8510001 0.801
-0.54900002 3.8510001 0.85100001
-0.54900002 3.8510001 0.90100002
-0.54900002 3.8510001 0.95099998
-0.54900002 3.8510001 1.001
-0.54900002 3.8510001 1.051
-0.54900002 3.8510001 1.101
-0.54900002 3.8510001 1.151
-0.54900002 3.8510001 1.201
-0.54900002 3.8510001 1.251
-0.54900002 3.8510001 1.301
-0.54900002 3.8510001 1.351
-0.54900002 3.8510001 1.401
-0.54900002 3.8510001 1.451
-0.54900002 3.8510001 1.501
-0.54900002 3.8510001 1.551
4.7509999 1.851 0.001
4.7509999 1.851 0.050999999
4.7509999 1.851 0.101
4.7509999 1.851 0.15099999
4.7509999 1.851 0.20100001
4.7509999 1.851 0.25099999
4.7509999 1.851 0.301
4.7509999 1.851 0.35100001
4.7509999 1.851 0.40099999
4.7509999 1.851 0.45100001
4.7509999 1.851 0.50099999
4.7509999 1.851 0.551
4.7509999 1.851 0.60100001
4.7509999 1.851 0.65100002
4.7509999 1.851 0.70099998
4.7509999 1.851 0.75099999
4.7509999 1.851 0.801
4.7509999 1.851 0.85100001
4.7509999 1.851 0.90100002
4.7509999 1.851 0.95099998
4.7509999 1.851 1.001
4.7509999 1.851 1.051
4.7509999 1.851 1.101
4.7509999 1.851 1.151
4.7509999 1.851 1.201
4.7509999 1.851 1.251
4.7509999 1.851 1.301
4.7509999 1.851 1.351
4.7509999 1.851 1.401
4.7509999 1.851 1.451
4.7509999 1.851 1.501
4.7509999 1.851 1.551
4.7509999 1.851 1.601
4.7509999 1.851 1.651
4.7509999 1.851 1.701
4.7509999 1.851 1.751
4.7509999 1.851 1.801
4.7509999 1.851 1.851
4.7509999 1.851 1.901
4.7509999 1.851 1.951
4.7509999 1.851 2.0009999
4.7509999 1.851 2.0510001
4.7509999 1.851 2.1010001
4.7509999 1.851 2.151
4.7509999 1.851 2.201
4.7509999 1.851 2.2509999
4.7509999 1.851 2.3010001
4.7509999 1.851 2.3510001
4.7509999 1.851 2.401
4.7509999 1.851 2.451
4.7509999 1.851 2.5009999
4.7509999 1.851 2.5510001
4.7509999 1.851 2.6010001
4.7509999 1.851 2.651
4.7509999 1.951 0.001
4.7509999 1.951 0.050999999
4.7509999 1.951 0.101
4.7509999 1.951 0.15099999
4.7509999 1.951 0.20100001
4.7509999 1.951 0.25099999
4.7509999 1.951 0.301
4.7509999 1.951 0.35100001
4.7509999 1.951 0.40099999
4.7509999 1.951 0.45100001
4.7509999 1.951 0.50099999
4.7509999 1.951 0.551
4.7509999 1.951 0.60100001
4.7509999 1.951 0.65100002
4.7509999 1.951 0.70099998
4.7509999 1.951 0.75099999
4.7509999 1.951 0.801
4.7509999 1.951 0.85100001
4.7509999 1.951 0.90100002
4.7509999 1.951 0.95099998
4.7509999 1.951 1.001
4.7509999 1.951 1.051
4.7509999 1.951 1.101
4.7509999 1.951 1.151
4.7509999 1.951 1.201
4.7509999 1.951 1.251
4.7509999 1.951 1.301
4.7509999 1.951 1.351
4.7509999 1.951 1.401
4.7509999 1.951 1.451
4.7509999 1.951 1.501
4.7509999 1.951 1.551
4.7509999 1.951 1.601
4.7509999 1.951 1.651
4.7509999 1.951 1.701
4.7509999 1.951 1.751
4.7509999 1.951 1.801
4.7509999 1.951 1.851
4.7509999 1.951 1.901
4.7509999 1.951 1.951
4.7509999 1.951 2.0009999
4.7509999 1.951 2.0510001
4.7509999 1.951 2.1010001
4.7509999 1.951 2.151
4.7509999 1.951 2.201
4.7509999 1.951 2.2509999
4.7509999 2.0510001 0.001
4.7509999 2.0510001 0.050999999
4.7509999 2.0510001 0.101
4.7509999 2.0510001 0.15099999
4.7509999 2.0510001 0.20100001
4.7509999 2.0510001 0.25099999
4.7509999 2.0510001 0.301
4.7509999 2.0510001 0.35100001
4.7509999 2.0510001 0.40099999
4.7509999 2.0510001 0.45100001
4.7509999 2.0510001 0.50099999
4.7509999 2.0510001 0.551
4.7509999 2.0510001 0.60100001
4.7509999 2.0510001 0.65100002
4.7509999 2.0510001 0.70099998
4.7509999 2.0510001 0.75099999
4.7509999 2.0510001 0.801
4.7509999 2.0510001 0.85100001
4.7509999 2.0510001 0.90100002
4.7509999 2.0510001 0.95099998
4.7509999 2.0510001 1.001
4.7509999 2.0510001 1.051
4.7509999 2.0510001 1.101
4.7509999 2.0510001 1.151
4.7509999 2.0510001 1.201
4.7509999 2.0510001 1.251
4.7509999 2.0510001 1.301
4.7509999 2.0510001 1.351
4.7509999 2.0510001 1.401
4.7509999 2.0510001 1.451
4.7509999 2.0510001 1.501
4.7509999 2.0510001 1.551
4.7509999 2.0510001 1.601
4.7509999 2.0510001 1.651
4.7509999 2.0510001 1.701
4.7509999 2.0510001 1.751
4.7509999 2.0510001 1.801
4.7509999 2.0510001 1.851
4.7509999 2.0510001 1.901
4.7509999 2.0510001 1.951
4.7509999 2.0510001 2.0009999
4.7509999 2.0510001 2.0510001
4.7509999 2.0510001 2.1010001
4.7509999 2.0510001 2.151
4.8509998 1.851 0.001
4.8509998 1.851 0.050999999
4.8509998 1.851 0.101
4.8509998 1.851 0.15099999
4.8509998 1.851 0.20100001
4.8509998 1.851 0.25099999
4.8509998 1.851 0.301
4.8509998 1.851 0.35100001
4.8509998 1.851 0.40099999
4.8509998 1.851 0.45100001
4.8509998 1.851 0.50099999
4.8509998 1.851 0.551
4.8509998 1.851 0.60100001
4.8509998 1.851 0.65100002
4.8509998 1.851 0.70099998
4.8509998 1.851 0.75099999
4.8509998 1.851 0.801
4.8509998 1.851 0.85100001
4.8509998 1.851 0.90100002
4.8509998 1.851 0.95099998
4.8509998 1.851 1.001
4.8509998 1.851 1.051
4.8509998 1.851 1.101
4.8509998 1.851 1.151
4.8509998 1.851 1.201
4.8509998 1.851 1.251
4.8509998 1.851 1.301
4.8509998 1.851 1.351
4.8509998 1.951 0.001
4.8509998 1.951 0.050999999
4.8509998 1.951 0.101
4.8509998 1.951 0.15099999
4.8509998 1.951 0.20100001
4.8509998 1.951 0.25099999
4.8509998 1.951 0.301
4.8509998 1.951 0.35100001
4.8509998 1.951 0.40099999
4.8509998 1.951 0.45100001
4.8509998 1.951 0.50099999
4.8509998 1.951 0.551
4.8509998 1.951 0.60100001
4.8509998 1.951 0.65100002
4.8509998 1.951 0.70099998
4.8509998 1.951 0.75099999
4.8509998 1.951 0.801
4.8509998 1.951 0.85100001
4.8509998 1.951 0.90100002
4.8509998 1.951 0.95099998
4.8509998 1.951 1.001
4.8509998 1.951 1.051
4.8509998 1.951 1.101
4.8509998 1.951 1.151
4.8509998 1.951 1.201
4.8509998 1.951 1.251
4.8509998 1.951 1.301
4.8509998 1.951 1.351
4.8509998 1.951 1.401
4.8509998 1.951 1.451
4.8509998 1.951 1.501
4.8509998 1.951 1.551
4.8509998 1.951 1.601
4.8509998 1.951 1.651
4.8509998 1.951 1.701
4.8509998 1.951 1.751
4.8509998 1.951 1.801
4.8509998 1.951 1.851
4.8509998 1.951 1.901
4.8509998 1.951 1.951
4.8509998 1.951 2.0009999
4.8509998 1.951 2.0510001
4.8509998 1.951 2.1010001
4.8509998 1.951 2.151
4.8509998 1.951 2.201
4.8509998 1.951 2.2509999
4.8509998 1.951 2.3010001
4.8509998 1.951 2.3510001
4.8509998 1.951 2.401
4.8509998 1.951 2.451
4.8509998 2.0510001 0.001
4.8509998 2.0510001 0.050999999
4.8509998 2.0510001 0.101
4.8509998 2.0510001 0.15099999
4.8509998 2.0510001 0.20100001
4.8509998 2.0510001 0.25099999
4.8509998 2.0510001 0.301
4.8509998 2.0510001 0.35100001
4.8509998 2.0510001 0.40099999
4.8509998 2.0510001 0.45100001
4.8509998 2.0510001 0.50099999
4.8509998 2.0510001 0.551
4.8509998 2.0510001 0.60100001
4.8509998 2.0510001 0.65100002
4.8509998 2.0510001 0.70099998
4.8509998 2.0510001 0.75099999
4.8509998 2.0510001 0.801
4.8509998 2.0510001 0.85100001
4.8509998 2.0510001 0.90100002
4.8509998 2.0510001 0.95099998
4.8509998 2.0510001 1.001
4.8509998 2.0510001 1.051
4.8509998 2.0510001 1.101
4.8509998 2.0510001 1.151
4.8509998 2.0510001 1.201
4.8509998 2.0510001 1.251
4.8509998 2.0510001 1.301
4.8509998 2.0510001 1.351
4.8509998 2.0510001 1.401
4.8509998 2.0510001 1.451
4.8509998 2.0510001 1.501
4.8509998 2.0510001 1.551
4.8509998 2.0510001 1.601
4.8509998 2.0510001 1.651
4.8509998 2.0510001 1.701
4.8509998 2.0510001 1.751
4.8509998 2.0510001 1.801
4.8509998 2.0510001 1.851
4.8509998 2.0510001 1.901
4.8509998 2.0510001 1.951
4.9510002 1.851 0.001
4.9510002 1.851 0.050999999
4.9510002 1.851 0.101
4.9510002 1.851 0.15099999
4.9510002 1.851 0.20100001
4.9510002 1.851 0.25099999
4.9510002 1.851 0.301
4.9510002 1.851 0.35100001
4.9510002 1.851 0.40099999
4.9510002 1.851 0.45100001
4.9510002 1.851 0.50099999
4.9510002 1.851 0.551
4.9510002 1.851 0.60100001
4.9510002 1.851 0.65100002
4.9510002 1.851 0.70099998
4.9510002 1.851 0.75099999
4.9510002 1.851 0.801
4.9510002 1.851 0.85100001
4.9510002 1.851 0.90100002
4.9510002 1.851 0.95099998
4.9510002 1.851 1.001
4.9510002 1.851 1.051
4.9510002 1.851 1.101
4.9510002 1.851 1.151
4.9510002 1.851 1.201
4.9510002 1.851 1.251
4.9510002 1.851 1.301
4.9510002 1.851 1.351
4.9510002 1.851 1.401
4.9510002 1.851 1.451
4.9510002 1.851 1.501
4.9510002 1.851 1.551
4.9510002 1.851 1.601
4.9510002 1.851 1.651
4.9510002 1.851 1.701
4.9510002 1.851 1.751
4.9510002 1.851 1.801
4.9510002 1.851 1.851
4.9510002 1.851 1.901
4.9510002 1.851 1.951
4.9510002 1.851 2.0009999
4.9510002 1.851 2.0510001
4.9510002 1.851 2.1010001
4.9510002 1.851 2.151
4.9510002 1.851 2.201
4.9510002 1.851 2.2509999
4.9510002 1.851 2.3010001
4.9510002 1.851 2.3510001
4.9510002 1.851 2.401
4.9510002 1.851 2.451
4.9510002 1.851 2.5009999
4.9510002 1.851 2.5510001
4.9510002 1.851 2.6010001
4.9510002 1.851 2.651
4.9510002 1.851 2.701
4.9510002 1.851 2.7509999
4.9510002 1.851 2.8010001
4.9510002 1.851 2.8510001
4.9510002 1.851 2.901
4.9510002 1.851 2.951
4.9510002 1.951 0.001
4.9510002 1.951 0.050999999
4.9510002 1.951 0.101
4.9510002 1.951 0.15099999
4.9510002 1.951 0.20100001
4.9510002 1.951 0.25099999
4.9510002 1.951 0.301
4.9510002 1.951 0.35100001
4.9510002 1.951 0.40099999
4.9510002 1.951 0.45100001
4.9510002 1.951 0.50099999
4.9510002 1.951 0.551
4.9510002 1.951 0.60100001
4.9510002 1.951 0.65100002
4.9510002 1.951 0.70099998
4.9510002 1.951 0.75099999
4.9510002 1.951 0.801
4.9510002 1.951 0.85100001
4.9510002 1.951 0.90100002
4.9510002 1.951 0.95099998
4.9510002 1.951 1.001
4.9510002 1.951 1.051
4.9510002 1.951 1.101
4.9510002 1.951 1.151
4.9510002 1.951 1.201
4.9510002 1.951 1.251
4.9510002 1.951 1.301
4.9510002 1.951 1.351
4.9510002 1.951 1.401
4.9510002 1.951 1.451
4.9510002 1.951 1.501
4.9510002 1.951 1.551
4.9510002 1.951 1.601
4.9510002 1.951 1.651
4.9510002 1.951 1.701
4.9510002 1.951 1.751
4.9510002 1.951 1.801
4.9510002 1.951 1.851
4.9510002 1.951 1.901
4.9510002 1.951 1.951
4.9510002 1.951 2.0009999
4.9510002 1.951 2.0510001
4.9510002 1.951 2.1010001
4.9510002 1.951 2.151
4.9510002 1.951 2.201
4.9510002 1.951 2.2509999
4.9510002 1.951 2.3010001
4.9510002 1.951 2.3510001
4.9510002 1.951 2.401
4.9510002 1.951 2.451
4.9510002 1.951 2.5009999
4.9510002 1.951 2.5510001
4.9510002 2.0510001 0.001
4.9510002 2.0510001 0.050999999
4.9510002 2.0510001 0.101
4.9510002 2.0510001 0.15099999
4.9510002 2.0510001 0.20100001
4.9510002 2.0510001 0.25099999
4.9510002 2.0510001 0.301
4.9510002 2.0510001 0.35100001
4.9510002 2.0510001 0.40099999
4.9510002 2.0510001 0.45100001
4.9510002 2.0510001 0.50099999
4.9510002 2.0510001 0.551
4.9510002 2.0510001 0.60100001
4.9510002 2.0510001 0.65100002
4.9510002 2.0510001 0.70099998
4.9510002 2.0510001 0.75099999
4.9510002 2.0510001 0.801
4.9510002 2.0510001 0.85100001
4.9510002 2.0510001 0.90100002
4.9510002 2.0510001 0.95099998
4.9510002 2.0510001 1.001
4.9510002 2.0510001 1.051
4.9510002 2.0510001 1.101
4.9510002 2.0510001 1.151
4.9510002 2.0510001 1.201
4.9510002 2.0510001 1.251
4.9510002 2.0510001 1.301
4.9510002 2.0510001 1.351
4.3509998 -2.2490001 0.001
4.3509998 -2.2490001 0.050999999
4.3509998 -2.2490001 0.101
4.3509998 -2.2490001 0.15099999
4.3509998 -2.2490001 0.20100001
4.3509998 -2.2490001 0.25099999
4.3509998 -2.2490001 0.301
4.3509998 -2.2490001 0.35100001
4.3509998 -2.2490001 0.40099999
4.3509998 -2.2490001 0.45100001
4.3509998 -2.2490001 0.50099999
4.3509998 -2.2490001 0.551
4.3509998 -2.2490001 0.60100001
4.3509998 -2.2490001 0.65100002
4.3509998 -2.2490001 0.70099998
4.3509998 -2.2490001 0.75099999
4.3509998 -2.2490001 0.801
4.3509998 -2.2490001 0.85100001
4.3509998 -2.2490001 0.90100002
4.3509998 -2.2490001 0.95099998
4.3509998 -2.2490001 1.001
4.3509998 -2.2490001 1.051
4.3509998 -2.2490001 1.101
4.3509998 -2.2490001 1.151
4.3509998 -2.2490001 1.201
4.3509998 -2.2490001 1.251
4.3509998 -2.2490001 1.301
4.3509998 -2.2490001 1.351
4.3509998 -2.2490001 1.401
4.3509998 -2.2490001 1.451
4.3509998 -2.2490001 1.501
4.3509998 -2.2490001 1.551
4.3509998 -2.2490001 1.601
4.3509998 -2.2490001 1.651
4.3509998 -2.2490001 1.701
4.3509998 -2.2490001 1.751
4.3509998 -2.2490001 1.801
4.3509998 -2.2490001 1.851
4.3509998 -2.2490001 1.901
4.3509998 -2.2490001 1.951
4.3509998 -2.2490001 2.0009999
4.3509998 -2.2490001 2.0510001
4.3509998 -2.2490001 2.1010001
4.3509998 -2.2490001 2.151
4.3509998 -2.2490001 2.201
4.3509998 -2.2490001 2.2509999
4.3509998 -2.2490001 2.3010001
4.3509998 -2.2490001 2.3510001
4.3509998 -2.2490001 2.401
4.3509998 -2.2490001 2.451
4.3509998 -2.2490001 2.5009999
4.3509998 -2.2490001 2.5510001
4.3509998 -2.2490001 2.6010001
4.3509998 -2.2490001 2.651
4.3509998 -2.2490001 2.701
4.3509998 -2.2490001 2.7509999
4.3509998 -2.2490001 2.8010001
4.3509998 -2.2490001 2.8510001
4.3509998 -2.2490001 2.901
4.3509998 -2.2490001 2.951
4.3509998 -2.1489999 0.001
4.3509998 -2.1489999 0.050999999
4.3509998 -2.1489999 0.101
4.3509998 -2.1489999 0.15099999
4.3509998 -2.1489999 0.20100001
4.3509998 -2.1489999 0.25099999
4.3509998 -2.1489999 0.301
4.3509998 -2.1489999 0.35100001
4.3509998 -2.1489999 0.40099999
4.3509998 -2.1489999 0.45100001
4.3509998 -2.1489999 0.50099999
4.3509998 -2.1489999 0.551
4.3509998 -2.1489999 0.60100001
4.3509998 -2.1489999 0.65100002
4.3509998 -2.1489999 0.70099998
4.3509998 -2.1489999 0.75099999
4.3509998 -2.1489999 0.801
4.3509998 -2.1489999 0.85100001
4.3509998 -2.1489999 0.90100002
4.3509998 -2.1489999 0.95099998
4.3509998 -2.1489999 1.001
4.3509998 -2.1489999 1.051
4.3509998 -2.1489999 1.101
4.3509998 -2.1489999 1.151
4.3509998 -2.1489999 1.201
4.3509998 -2.1489999 1.251
4.3509998 -2.1489999 1.301
4.3509998 -2.1489999 1.351
4.3509998 -2.1489999 1.401
4.3509998 -2.1489999 1.451
4.3509998 -2.049 0.001
4.3509998 -2.049 0.050999999
4.3509998 -2.049 0.101
4.3509998 -2.049 0.15099999
4.3509998 -2.049 0.20100001
4.3509998 -2.049 0.25099999
4.3509998 -2.049 0.301
4.3509998 -2.049 0.35100001
4.3509998 -2.049 0.40099999
4.3509998 -2.049 0.45100001
4.3509998 -2.049 0.50099999
4.3509998 -2.049 0.551
4.3509998 -2.049 0.60100001
4.3509998 -2.049 0.65100002
4.3509998 -2.049 0.70099998
4.3509998 -2.049 0.75099999
4.3509998 -2.049 0.801
4.3509998 -2.049 0.85100001
4.3509998 -2.049 0.90100002
4.3509998 -2.049 0.95099998
4.3509998 -2.049 1.001
4.3509998 -2.049 1.051
4.3509998 -2.049 1.101
4.3509998 -2.049 1.151
4.3509998 -1.949 0.001
4.3509998 -1.949 0.050999999
4.3509998 -1.949 0.101
4.3509998 -1.949 0.15099999
4.3509998 -1.949 0.20100001
4.3509998 -1.949 0.25099999
4.3509998 -1.949 0.301
4.3509998 -1.949 0.35100001
4.3509998 -1.949 0.40099999
4.3509998 -1.949 0.45100001
4.3509998 -1.949 0.50099999
4.3509998 -1.949 0.551
4.3509998 -1.949 0.60100001
4.3509998 -1.949 0.65100002
4.3509998 -1.949 0.70099998
4.3509998 -1.949 0.75099999
4.3509998 -1.949 0.801
4.3509998 -1.949 0.85100001
4.3509998 -1.949 0.90100002
4.3509998 -1.949 0.95099998
4.3509998 -1.949 1.001
4.3509998 -1.949 1.051
4.3509998 -1.949 1.101
4.3509998 -1.949 1.151
4.3509998 -1.949 1.201
4.3509998 -1.949 1.251
4.3509998 -1.949 1.301
4.3509998 -1.949 1.351
4.3509998 -1.949 1.401
4.3509998 -1.949 1.451
4.3509998 -1.949 1.501
4.3509998 -1.949 1.551
4.3509998 -1.949 1.601
4.3509998 -1.949 1.651
4.3509998 -1.949 1.701
4.3509998 -1.949 1.751
4.3509998 -1.849 0.001
4.3509998 -1.849 0.050999999
4.3509998 -1.849 0.101
4.3509998 -1.849 0.15099999
4.3509998 -1.849 0.20100001
4.3509998 -1.849 0.25099999
4.3509998 -1.849 0.301
4.3509998 -1.849 0.35100001
4.3509998 -1.849 0.40099999
4.3509998 -1.849 0.45100001
4.3509998 -1.849 0.50099999
4.3509998 -1.849 0.551
4.3509998 -1.849 0.60100001
4.3509998 -1.849 0.65100002
4.3509998 -1.849 0.70099998
4.3509998 -1.849 0.75099999
4.3509998 -1.849 0.801
4.3509998 -1.849 0.85100001
4.3509998 -1.849 0.90100002
4.3509998 -1.849 0.95099998
4.3509998 -1.849 1.001
4.3509998 -1.849 1.051
4.3509998 -1.849 1.101
4.3509998 -1.849 1.151
4.4510002 -2.2490001 0.001
4.4510002 -2.2490001 0.050999999
4.4510002 -2.2490001 0.101
4.4510002 -2.2490001 0.15099999
4.4510002 -2.2490001 0.20100001
4.4510002 -2.2490001 0.25099999
4.4510002 -2.2490001 0.301
4.4510002 -2.2490001 0.35100001
4.4510002 -2.2490001 0.40099999
4.4510002 -2.2490001 0.45100001
4.4510002 -2.2490001 0.50099999
4.4510002 -2.2490001 0.551
4.4510002 -2.2490001 0.60100001
4.4510002 -2.2490001 0.65100002
4.4510002 -2.2490001 0.70099998
4.4510002 -2.2490001 0.75099999
4.4510002 -2.2490001 0.801
4.4510002 -2.2490001 0.85100001
4.4510002 -2.2490001 0.90100002
4.4510002 -2.2490001 0.95099998
4.4510002 -2.2490001 1.001
4.4510002 -2.2490001 1.051
4.4510002 -2.2490001 1.101
4.4510002 -2.2490001 1.151
4.4510002 -2.2490001 1.201
4.4510002 -2.2490001 1.251
4.4510002 -2.2490001 1.301
4.4510002 -2.2490001 1.351
4.4510002 -2.2490001 1.401
4.4510002 -2.2490001 1.451
4.4510002 -2.2490001 1.501
4.4510002 -2.2490001 1.551
4.4510002 -2.2490001 1.601
4.4510002 -2.2490001 1.651
4.4510002 -2.2490001 1.701
4.4510002 -2.2490001 1.751
4.4510002 -2.2490001 1.801
4.4510002 -2.2490001 1.851
4.4510002 -2.2490001 1.901
4.4510002 -2.2490001 1.951
4.4510002 -2.2490001 2.0009999
4.4510002 -2.2490001 2.0510001
4.4510002 -2.2490001 2.1010001
4.4510002 -2.2490001 2.151
4.4510002 -2.2490001 2.201
4.4510002 -2.2490001 2.2509999
4.4510002 -2.2490001 2.3010001
4.4510002 -2.2490001 2.3510001
4.4510002 -2.2490001 2.401
4.4510002 -2.2490001 2.451
4.4510002 -2.2490001 2.5009999
4.4510002 -2.2490001 2.5510001
4.4510002 -2.1489999 0.001
4.4510002 -2.1489999 0.050999999
4.4510002 -2.1489999 0.101
4.4510002 -2.1489999 0.15099999
4.4510002 -2.1489999 0.20100001
4.4510002 -2.1489999 0.25099999
4.4510002 -2.1489999 0.301
4.4510002 -2.1489999 0.35100001
4.4510002 -2.1489999 0.40099999
4.4510002 -2.1489999 0.45100001
4.4510002 -2.1489999 0.50099999
4.4510002 -2.1489999 0.551
4.4510002 -2.1489999 0.60100001
4.4510002 -2.1489999 0.65100002
4.4510002 -2.1489999 0.70099998
4.4510002 -2.1489999 0.75099999
4.4510002 -2.1489999 0.801
4.4510002 -2.1489999 0.85100001
4.4510002 -2.1489999 0.90100002
4.4510002 -2.1489999 0.95099998
4.4510002 -2.1489999 1.001
4.4510002 -2.1489999 1.051
4.4510002 -2.1489999 1.101
4.4510002 -2.1489999 1.151
4.4510002 -2.1489999 1.201
4.4510002 -2.1489999 1.251
4.4510002 -2.1489999 1.301
4.4510002 -2.1489999 1.351
4.4510002 -2.049 0.001
4.4510002 -2.049 0.050999999
4.4510002 -2.049 0.101
4.4510002 -2.049 0.15099999
4.4510002 -2.049 0.20100001
4.4510002 -2.049 0.25099999
4.4510002 -2.049 0.301
4.4510002 -2.049 0.35100001
4.4510002 -2.049 0.40099999
4.4510002 -2.049 0.45100001
4.4510002 -2.049 0.50099999
4.4510002 -2.049 0.551
4.4510002 -2.049 0.60100001
4.4510002 -2.049 0.65100002
4.4510002 -2.049 0.70099998
4.4510002 -2.049 0.75099999
4.4510002 -2.049 0.801
4.4510002 -2.049 0.85100001
4.4510002 -2.049 0.90100002
4.4510002 -2.049 0.95099998
4.4510002 -2.049 1.001
4.4510002 -2.049 1.051
4.4510002 -2.049 1.101
4.4510002 -2.049 1.151
4.4510002 -2.049 1.201
4.4510002 -2.049 1.251
4.4510002 -2.049 1.301
4.4510002 -2.049 1.351
4.4510002 -2.049 1.401
4.4510002 -2.049 1.451
4.4510002 -2.049 1.501
4.4510002 -2.049 1.551
4.4510002 -1.949 0.001
4.4510002 -1.949 0.050999999
4.4510002 -1.949 0.101
4.4510002 -1.949 0.15099999
4.4510002 -1.949 0.20100001
4.4510002 -1.949 0.25099999
4.4510002 -1.949 0.301
4.4510002 -1.949 0.35100001
4.4510002 -1.949 0.40099999
4.4510002 -1.949 0.45100001
4.4510002 -1.949 0.50099999
4.4510002 -1.949 0.551
4.4510002 -1.949 0.60100001
4.4510002 -1.949 0.65100002
4.4510002 -1.949 0.70099998
4.4510002 -1.949 0.75099999
4.4510002 -1.949 0.801
4.4510002 -1.949 0.85100001
4.4510002 -1.949 0.90100002
4.4510002 -1.949 0.95099998
4.4510002 -1.949 1.001
4.4510002 -1.949 1.051
4.4510002 -1.949 1.101
4.4510002 -1.949 1.151
4.4510002 -1.949 1.201
4.4510002 -1.949 1.251
4.4510002 -1.949 1.301
4.4510002 -1.949 1.351
4.4510002 -1.949 1.401
4.4510002 -1.949 1.451
4.4510002 -1.949 1.501
4.4510002 -1.949 1.551
4.4510002 -1.949 1.601
4.4510002 -1.949 1.651
4.4510002 -1.949 1.701
4.4510002 -1.949 1.751
4.4510002 -1.949 1.801
4.4510002 -1.949 1.851
4.4510002 -1.949 1.901
4.4510002 -1.949 1.951
4.4510002 -1.949 2.0009999
4.4510002 -1.949 2.0510001
4.4510002 -1.949 2.1010001
4.4510002 -1.949 2.151
4.4510002 -1.949 2.201
4.4510002 -1.949 2.2509999
4.4510002 -1.949 2.3010001
4.4510002 -1.949 2.3510001
4.4510002 -1.949 2.401
4.4510002 -1.949 2.451
4.4510002 -1.949 2.5009999
4.4510002 -1.949 2.5510001
4.4510002 -1.949 2.6010001
4.4510002 -1.949 2.651
4.4510002 -1.949 2.701
4.4510002 -1.949 2.7509999
4.4510002 -1.949 2.8010001
4.4510002 -1.949 2.8510001
4.4510002 -1.849 0.001
4.4510002 -1.849 0.050999999
4.4510002 -1.849 0.101
4.4510002 -1.849 0.15099999
4.4510002 -1.849 0.20100001
4.4510002 -1.849 0.25099999
4.4510002 -1.849 0.301
4.4510002 -1.849 0.35100001
4.4510002 -1.849 0.40099999
4.4510002 -1.849 0.45100001
4.4510002 -1.849 0.50099999
4.4510002 -1.849 0.551
4.4510002 -1.849 0.60100001
4.4510002 -1.849 0.65100002
4.4510002 -1.849 0.70099998
4.4510002 -1.849 0.75099999
4.4510002 -1.849 0.801
4.4510002 -1.849 0.85100001
4.4510002 -1.849 0.90100002
4.4510002 -1.849 0.95099998
4.4510002 -1.849 1.001
4.4510002 -1.849 1.051
4.4510002 -1.849 1.101
4.4510002 -1.849 1.151
4.4510002 -1.849 1.201
4.4510002 -1.849 1.251
4.4510002 -1.849 1.301
4.4510002 -1.849 1.351
4.4510002 -1.849 1.401
4.4510002 -1.849 1.451
4.4510002 -1.849 1.501
4.4510002 -1.849 1.551
4.4510002 -1.849 1.601
4.4510002 -1.849 1.651
4.4510002 -1.849 1.701
4.4510002 -1.849 1.751
4.4510002 -1.849 1.801
4.4510002 -1.849 1.851
4.4510002 -1.849 1.901
4.4510002 -1.849 1.951
4.4510002 -1.849 2.0009999
4.4510002 -1.849 2.0510001
4.4510002 -1.849 2.1010001
4.4510002 -1.849 2.151
4.5510001 -2.2490001 0.001
4.5510001 -2.2490001 0.050999999
4.5510001 -2.2490001 0.101
4.5510001 -2.2490001 0.15099999
4.5510001 -2.2490001 0.20100001
4.5510001 -2.2490001 0.25099999
4.5510001 -2.2490001 0.301
4.5510001 -2.2490001 0.35100001
4.5510001 -2.2490001 0.40099999
4.5510001 -2.2490001 0.45100001
4.5510001 -2.2490001 0.50099999
4.5510001 -2.2490001 0.551
4.5510001 -2.2490001 0.60100001
4.5510001 -2.2490001 0.65100002
4.5510001 -2.2490001 0.70099998
4.5510001 -2.2490001 0.75099999
4.5510001 -2.2490001 0.801
4.5510001 -2.2490001 0.85100001
4.5510001 -2.2490001 0.90100002
4.5510001 -2.2490001 0.95099998
4.5510001 -2.2490001 1.001
4.5510001 -2.2490001 1.051
4.5510001 -2.2490001 1.101
4.5510001 -2.2490001 1.151
4.5510001 -2.2490001 1.201
4.5510001 -2.2490001 1.251
4.5510001 -2.2490001 1.301
4.5510001 -2.2490001 1.351
4.5510001 -2.2490001 1.401
4.5510001 -2.2490001 1.451
4.5510001 -2.2490001 1.501
4.5510001 -2.2490001 1.551
4.5510001 -2.2490001 1.601
4.5510001 -2.2490001 1.651
4.5510001 -2.2490001 1.701
4.5510001 -2.2490001 1.751
4.5510001 -2.2490001 1.801
4.5510001 -2.2490001 1.851
4.5510001 -2.2490001 1.901
4.5510001 -2.2490001 1.951
4.5510001 -2.2490001 2.0009999
4.5510001 -2.2490001 2.0510001
4.5510001 -2.2490001 2.1010001
4.5510001 -2.2490001 2.151
4.5510001 -2.1489999 0.001
4.5510001 -2.1489999 0.050999999
4.5510001 -2.1489999 0.101
4.5510001 -2.1489999 0.15099999
4.5510001 -2.1489999 0.20100001
4.5510001 -2.1489999 0.25099999
4.5510001 -2.1489999 0.301
4.5510001 -2.1489999 0.35100001
4.5510001 -2.1489999 0.40099999
4.5510001 -2.1489999 0.45100001
4.5510001 -2.1489999 0.50099999
4.5510001 -2.1489999 0.551
4.5510001 -2.1489999 0.60100001
4.5510001 -2.1489999 0.65100002
4.5510001 -2.1489999 0.70099998
4.5510001 -2.1489999 0.75099999
4.5510001 -2.1489999 0.801
4.5510001 -2.1489999 0.85100001
4.5510001 -2.1489999 0.90100002
4.5510001 -2.1489999 0.95099998
4.5510001 -2.1489999 1.001
4.5510001 -2.1489999 1.051
4.5510001 -2.1489999 1.101
4.5510001 -2.1489999 1.151
4.5510001 -2.1489999 1.201
4.5510001 -2.1489999 1.251
4.5510001 -2.1489999 1.301
4.5510001 -2.1489999 1.351
4.5510001 -2.1489999 1.401
4.5510001 -2.1489999 1.451
4.5510001 -2.1489999 1.501
4.5510001 -2.1489999 1.551
4.5510001 -2.1489999 1.601
4.5510001 -2.1489999 1.651
4.5510001 -2.1489999 1.701
4.5510001 -2.1489999 1.751
4.5510001 -2.049 0.001
4.5510001 -2.049 0.050999999
4.5510001 -2.049 0.101
4.5510001 -2.049 0.15099999
4.5510001 -2.049 0.20100001
4.5510001 -2.049 0.25099999
4.5510001 -2.049 0.301
4.5510001 -2.049 0.35100001
4.5510001 -2.049 0.40099999
4.5510001 -2.049 0.45100001
4.5510001 -2.049 0.50099999
4.5510001 -2.049 0.551
4.5510001 -2.049 0.60100001
4.5510001 -2.049 0.65100002
4.5510001 -2.049 0.70099998
4.5510001 -2.049 0.75099999
4.5510001 -2.049 0.801
4.5510001 -2.049 0.85100001
4.5510001 -2.049 0.90100002
4.5510001 -2.049 0.95099998
4.5510001 -2.049 1.001
4.5510001 -2.049 1.051
4.5510001 -1.949 0.001
4.5510001 -1.949 0.050999999
4.5510001 -1.949 0.101
4.5510001 -1.949 0.15099999
4.5510001 -1.949 0.20100001
4.5510001 -1.949 0.25099999
4.5510001 -1.949 0.301
4.5510001 -1.949 0.35100001
4.5510001 -1.949 0.40099999
4.5510001 -1.949 0.45100001
4.5510001 -1.949 0.50099999
4.5510001 -1.949 0.551
4.5510001 -1.949 0.60100001
4.5510001 -1.949 0.65100002
4.5510001 -1.949 0.70099998
4.5510001 -1.949 0.75099999
4.5510001 -1.949 0.801
4.5510001 -1.949 0.85100001
4.5510001 -1.949 0.90100002
4.5510001 -1.949 0.95099998
4.5510001 -1.949 1.001
4.5510001 -1.949 1.051
4.5510001 -1.949 1.101
4.5510001 -1.949 1.151
4.5510001 -1.949 1.201
4.5510001 -1.949 1.251
4.5510001 -1.949 1.301
4.5510001 -1.949 1.351
4.5510001 -1.949 1.401
4.5510001 -1.949 1.451
4.5510001 -1.949 1.501
4.5510001 -1.949 1.551
4.5510001 -1.949 1.601
4.5510001 -1.949 1.651
4.5510001 -1.949 1.701
4.5510001 -1.949 1.751
4.5510001 -1.949 1.801
4.5510001 -1.949 1.851
4.5510001 -1.949 1.901
4.5510001 -1.949 1.951
4.5510001 -1.949 2.0009999
4.5510001 -1.949 2.0510001
4.5510001 -1.949 2.1010001
4.5510001 -1.949 2.151
4.5510001 -1.949 2.201
4.5510001 -1.949 2.2509999
4.5510001 -1.849 0.001
4.5510001 -1.849 0.050999999
4.5510001 -1.849 0.101
4.5510001 -1.849 0.15099999
4.5510001 -1.849 0.20100001
4.5510001 -1.849 0.25099999
4.5510001 -1.849 0.301
4.5510001 -1.849 0.35100001
4.5510001 -1.849 0.40099999
4.5510001 -1.849 0.45100001
4.5510001 -1.849 0.50099999
4.5510001 -1.849 0.551
4.5510001 -1.849 0.60100001
4.5510001 -1.849 0.65100002
4.5510001 -1.849 0.70099998
4.5510001 -1.849 0.75099999
4.5510001 -1.849 0.801
4.5510001 -1.849 0.85100001
4.5510001 -1.849 0.90100002
4.5510001 -1.849 0.95099998
4.5510001 -1.849 1.001
4.5510001 -1.849 1.051
4.5510001 -1.849 1.101
4.5510001 -1.849 1.151
4.5510001 -1.849 1.201
4.5510001 -1.849 1.251
4.5510001 -1.849 1.301
4.5510001 -1.849 1.351
4.5510001 -1.849 1.401
4.5510001 -1.849 1.451
4.651 -2.2490001 0.001
4.651 -2.2490001 0.050999999
4.651 -2.2490001 0.101
4.651 -2.2490001 0.15099999
4.651 -2.2490001 0.20100001
4.651 -2.2490001 0.25099999
4.651 -2.2490001 0.301
4.651 -2.2490001 0.35100001
4.651 -2.2490001 0.40099999
4.651 -2.2490001 0.45100001
4.651 -2.2490001 0.50099999
4.651 -2.2490001 0.551
4.651 -2.2490001 0.60100001
4.651 -2.2490001 0.65100002
4.651 -2.2490001 0.70099998
4.651 -2.2490001 0.75099999
4.651 -2.2490001 0.801
4.651 -2.2490001 0.85100001
4.651 -2.2490001 0.90100002
4.651 -2.2490001 0.95099998
4.651 -2.2490001 1.001
4.651 -2.2490001 1.051
4.651 -2.2490001 1.101
4.651 -2.2490001 1.151
4.651 -2.2490001 1.201
4.651 -2.2490001 1.251
4.651 -2.2490001 1.301
4.651 -2.2490001 1.351
4.651 -2.2490001 1.401
4.651 -2.2490001 1.451
4.651 -2.2490001 1.501
4.651 -2.2490001 1.551
4.651 -2.2490001 1.601
4.651 -2.2490001 1.651
4.651 -2.2490001 1.701
4.651 -2.2490001 1.751
4.651 -2.2490001 1.801
4.651 -2.2490001 1.851
4.651 -2.2490001 1.901
4.651 -2.2490001 1.951
4.651 -2.2490001 2.0009999
4.651 -2.2490001 2.0510001
4.651 -2.2490001 2.1010001
4.651 -2.2490001 2.151
4.651 -2.2490001 2.201
4.651 -2.2490001 2.2509999
4.651 -2.2490001 2.3010001
4.651 -2.2490001 2.3510001
4.651 -2.1489999 0.001
4.651 -2.1489999 0.050999999
4.651 -2.1489999 0.101
4.651 -2.1489999 0.15099999
4.651 -2.1489999 0.20100001
4.651 -2.1489999 0.25099999
4.651 -2.1489999 0.301
4.651 -2.1489999 0.35100001
4.651 -2.1489999 0.40099999
4.651 -2.1489999 0.45100001
4.651 -2.1489999 0.50099999
4.651 -2.1489999 0.551
4.651 -2.1489999 0.60100001
4.651 -2.1489999 0.65100002
4.651 -2.1489999 0.70099998
4.651 -2.1489999 0.75099999
4.651 -2.1489999 0.801
4.651 -2.1489999 0.85100001
4.651 -2.1489999 0.90100002
4.651 -2.1489999 0.95099998
4.651 -2.1489999 1.001
4.651 -2.1489999 1.051
4.651 -2.1489999 1.101
4.651 -2.1489999 1.151
4.651 -2.1489999 1.201
4.651 -2.1489999 1.251
4.651 -2.1489999 1.301
4.651 -2.1489999 1.351
4.651 -2.1489999 1.401
4.651 -2.1489999 1.451
4.651 -2.1489999 1.501
4.651 -2.1489999 1.551
4.651 -2.1489999 1.601
4.651 -2.1489999 1.651
4.651 -2.1489999 1.701
4.651 -2.1489999 1.751
4.651 -2.1489999 1.801
4.651 -2.1489999 1.851
4.651 -2.049 0.001
4.651 -2.049 0.050999999
4.651 -2.049 0.101
4.651 -2.049 0.15099999
4.651 -2.049 0.20100001
4.651 -2.049 0.25099999
4.651 -2.049 0.301
4.651 -2.049 0.35100001
4.651 -2.049 0.40099999
4.651 -2.049 0.45100001
4.651 -2.049 0.50099999
4.651 -2.049 0.551
4.651 -2.049 0.60100001
4.651 -2.049 0.65100002
4.651 -2.049 0.70099998
4.651 -2.049 0.75099999
4.651 -2.049 0.801
4.651 -2.049 0.85100001
4.651 -2.049 0.90100002
4.651 -2.049 0.95099998
4.651 -2.049 1.001
4.651 -2.049 1.051
4.651 -1.949 0.001
4.651 -1.949 0.050999999
4.651 -1.949 0.101
4.651 -1.949 0.15099999
4.651 -1.949 0.20100001
4.651 -1.949 0.25099999
4.651 -1.949 0.301
4.651 -1.949 0.35100001
4.651 -1.949 0.40099999
4.651 -1.949 0.45100001
4.651 -1.949 0.50099999
4.651 -1.949 0.551
4.651 -1.949 0.60100001
4.651 -1.949 0.65100002
4.651 -1.949 0.70099998
4.651 -1.949 0.75099999
4.651 -1.949 0.801
4.651 -1.949 0.85100001
4.651 -1.949 0.90100002
4.651 -1.949 0.95099998
4.651 -1.949 1.001
4.651 -1.949 1.051
4.651 -1.949 1.101
4.651 -1.949 1.151
4.651 -1.949 1.201
4.651 -1.949 1.251
4.651 -1.949 1.301
4.651 -1.949 1.351
4.651 -1.949 1.401
4.651 -1.949 1.451
4.651 -1.949 1.501
4.651 -1.949 1.551
4.651 -1.949 1.601
4.651 -1.949 1.651
4.651 -1.949 1.701
4.651 -1.949 1.751
4.651 -1.949 1.801
4.651 -1.949 1.851
4.651 -1.949 1.901
4.651 -1.949 1.951
4.651 -1.949 2.0009999
4.651 -1.949 2.0510001
4.651 -1.949 2.1010001
4.651 -1.949 2.151
4.651 -1.949 2.201
4.651 -1.949 2.2509999
4.651 -1.949 2.3010001
4.651 -1.949 2.3510001
4.651 -1.949 2.401
4.651 -1.949 2.451
4.651 -1.949 2.5009999
4.651 -1.949 2.5510001
4.651 -1.949 2.6010001
4.651 -1.949 2.651
4.651 -1.949 2.701
4.651 -1.949 2.7509999
4.651 -1.849 0.001
4.651 -1.849 0.050999999
4.651 -1.849 0.101
4.651 -1.849 0.15099999
4.651 -1.849 0.20100001
4.651 -1.849 0.25099999
4.651 -1.849 0.301
4.651 -1.849 0.35100001
4.651 -1.849 0.40099999
4.651 -1.849 0.45100001
4.651 -1.849 0.50099999
4.651 -1.849 0.551
4.651 -1.849 0.60100001
4.651 -1.849 0.65100002
4.651 -1.849 0.70099998
4.651 -1.849 0.75099999
4.651 -1.849 0.801
4.651 -1.849 0.85100001
4.651 -1.849 0.90100002
4.651 -1.849 0.95099998
4.651 -1.849 1.001
4.651 -1.849 1.051
4.7509999 -2.2490001 0.001
4.7509999 -2.2490001 0.050999999
4.7509999 -2.2490001 0.101
4.7509999 -2.2490001 0.15099999
4.7509999 -2.2490001 0.20100001
4.7509999 -2.2490001 0.25099999
4.7509999 -2.2490001 0.301
4.7509999 -2.2490001 0.35100001
4.7509999 -2.2490001 0.40099999
4.7509999 -2.2490001 0.45100001
4.7509999 -2.2490001 0.50099999
4.7509999 -2.2490001 0.551
4.7509999 -2.2490001 0.60100001
4.7509999 -2.2490001 0.65100002
4.7509999 -2.2490001 0.70099998
4.7509999 -2.2490001 0.75099999
4.7509999 -2.2490001 0.801
4.7509999 -2.2490001 0.85100001
4.7509999 -2.2490001 0.90100002
4.7509999 -2.2490001 0.95099998
4.7509999 -2.2490001 1.001
4.7509999 -2.2490001 1.051
4.7509999 -2.2490001 1.101
4.7509999 -2.2490001 1.151
4.7509999 -2.2490001 1.201
4.7509999 -2.2490001 1.251
4.7509999 -2.1489999 0.001
4.7509999 -2.1489999 0.050999999
4.7509999 -2.1489999 0.101
4.7509999 -2.1489999 0.15099999
4.7509999 -2.1489999 0.20100001
4.7509999 -2.1489999 0.25099999
4.7509999 -2.1489999 0.301
4.7509999 -2.1489999 0.35100001
4.7509999 -2.1489999 0.40099999
4.7509999 -2.1489999 0.45100001
4.7509999 -2.1489999 0.50099999
4.7509999 -2.1489999 0.551
4.7509999 -2.1489999 0.60100001
4.7509999 -2.1489999 0.65100002
4.7509999 -2.1489999 0.70099998
4.7509999 -2.1489999 0.75099999
4.7509999 -2.1489999 0.801
4.7509999 -2.1489999 0.85100001
4.7509999 -2.1489999 0.90100002
4.7509999 -2.1489999 0.95099998
4.7509999 -2.1489999 1.001
4.7509999 -2.1489999 1.051
4.7509999 -2.1489999 1.101
4.7509999 -2.1489999 1.151
4.7509999 -2.1489999 1.201
4.7509999 -2.1489999 1.251
4.7509999 -2.1489999 1.301
4.7509999 -2.1489999 1.351
4.7509999 -2.1489999 1.401
4.7509999 -2.1489999 1.451
4.7509999 -2.1489999 1.501
4.7509999 -2.1489999 1.551
4.7509999 -2.1489999 1.601
4.7509999 -2.1489999 1.651
4.7509999 -2.1489999 1.701
4.7509999 -2.1489999 1.751
4.7509999 -2.1489999 1.801
4.7509999 -2.1489999 1.851
4.7509999 -2.1489999 1.901
4.7509999 -2.1489999 1.951
4.7509999 -2.1489999 2.0009999
4.7509999 -2.1489999 2.0510001
4.7509999 -2.1489999 2.1010001
4.7509999 -2.1489999 2.151
4.7509999 -2.1489999 2.201
4.7509999 -2.1489999 2.2509999
4.7509999 -2.1489999 2.3010001
4.7509999 -2.1489999 2.3510001
4.7509999 -2.1489999 2.401
4.7509999 -2.1489999 2.451
4.7509999 -2.1489999 2.5009999
4.7509999 -2.1489999 2.5510001
4.7509999 -2.1489999 2.6010001
4.7509999 -2.1489999 2.651
4.7509999 -2.1489999 2.701
4.7509999 -2.1489999 2.7509999
4.7509999 -2.1489999 2.8010001
4.7509999 -2.1489999 2.8510001
4.7509999 -2.1489999 2.901
4.7509999 -2.1489999 2.951
4.7509999 -2.049 0.001
4.7509999 -2.049 0.050999999
4.7509999 -2.049 0.101
4.7509999 -2.049 0.15099999
4.7509999 -2.049 0.20100001
4.7509999 -2.049 0.25099999
4.7509999 -2.049 0.301
4.7509999 -2.049 0.35100001
4.7509999 -2.049 0.40099999
4.7509999 -2.049 0.45100001
4.7509999 -2.049 0.50099999
4.7509999 -2.049 0.551
4.7509999 -2.049 0.60100001
4.7509999 -2.049 0.65100002
4.7509999 -2.049 0.70099998
4.7509999 -2.049 0.75099999
4.7509999 -2.049 0.801
4.7509999 -2.049 0.85100001
4.7509999 -2.049 0.90100002
4.7509999 -2.049 0.95099998
4.7509999 -2.049 1.001
4.7509999 -2.049 1.051
4.7509999 -2.049 1.101
4.7509999 -2.049 1.151
4.7509999 -2.049 1.201
4.7509999 -2.049 1.251
4.7509999 -2.049 1.301
4.7509999 -2.049 1.351
4.7509999 -1.949 0.001
4.7509999 -1.949 0.050999999
4.7509999 -1.949 0.101
4.7509999 -1.949 0.15099999
4.7509999 -1.949 0.20100001
4.7509999 -1.949 0.25099999
4.7509999 -1.949 0.301
4.7509999 -1.949 0.35100001
4.7509999 -1.949 0.40099999
4.7509999 -1.949 0.45100001
4.7509999 -1.949 0.50099999
4.7509999 -1.949 0.551
4.7509999 -1.949 0.60100001
4.7509999 -1.949 0.65100002
4.7509999 -1.949 0.70099998
4.7509999 -1.949 0.75099999
4.7509999 -1.949 0.801
4.7509999 -1.949 0.85100001
4.7509999 -1.949 0.90100002
4.7509999 -1.949 0.95099998
4.7509999 -1.949 1.001
4.7509999 -1.949 1.051
4.7509999 -1.949 1.101
4.7509999 -1.949 1.151
4.7509999 -1.949 1.201
4.7509999 -1.949 1.251
4.7509999 -1.949 1.301
4.7509999 -1.949 1.351
4.7509999 -1.949 1.401
4.7509999 -1.949 1.451
4.7509999 -1.949 1.501
4.7509999 -1.949 1.551
4.7509999 -1.949 1.601
4.7509999 -1.949 1.651
4.7509999 -1.949 1.701
4.7509999 -1.949 1.751
4.7509999 -1.949 1.801
4.7509999 -1.949 1.851
4.7509999 -1.949 1.901
4.7509999 -1.949 1.951
4.7509999 -1.949 2.0009999
4.7509999 -1.949 2.0510001
4.7509999 -1.949 2.1010001
4.7509999 -1.949 2.151
4.7509999 -1.949 2.201
4.7509999 -1.949 2.2509999
4.7509999 -1.949 2.3010001
4.7509999 -1.949 2.3510001
4.7509999 -1.849 0.001
4.7509999 -1.849 0.050999999
4.7509999 -1.849 0.101
4.7509999 -1.849 0.15099999
4.7509999 -1.849 0.20100001
4.7509999 -1.849 0.25099999
4.7509999 -1.849 0.301
4.7509999 -1.849 0.35100001
4.7509999 -1.849 0.40099999
4.7509999 -1.849 0.45100001
4.7509999 -1.849 0.50099999
4.7509999 -1.849 0.551
4.7509999 -1.849 0.60100001
4.7509999 -1.849 0.65100002
4.7509999 -1.849 0.70099998
4.7509999 -1.849 0.75099999
4.7509999 -1.849 0.801
4.7509999 -1.849 0.85100001
4.7509999 -1.849 0.90100002
4.7509999 -1.849 0.95099998
4.7509999 -1.849 1.001
4.7509999 -1.849 1.051
4.7509999 -1.849 1.101
4.7509999 -1.849 1.151
4.7509999 -1.849 1.201
4.7509999 -1.849 1.251
4.4510002 0.75099999 0.001
4.4510002 0.75099999 0.050999999
4.4510002 0.75099999 0.101
4.4510002 0.75099999 0.15099999
4.4510002 0.75099999 0.20100001
4.4510002 0.75099999 0.25099999
4.4510002 0.75099999 0.301
